NCOLS         40
NROWS         40
CELLSIZE 0.5000
XLLCENTER     685000.0000
YLLCENTER     4929980.0000
NODATA_VALUE  -9999
71.1840 71.0670 66.7470 65.9420 65.2880 52.8560 50.6560 50.6260 50.6280 50.6330 50.6290 50.6480 50.6530 50.6610 50.6630 50.6740 50.6890 50.6850 50.7870 51.4920 51.8020 52.0540 51.9680 51.4490 50.8780 50.6660 50.6520 50.6420 50.6350 50.6180 50.6240 51.4970 50.9420 52.4910 55.3310 51.3530 51.2140 52.7630 59.0240 58.2010
69.0190 62.8270 63.5650 52.0350 50.6970 50.6710 50.6350 50.6290 50.6420 50.6480 50.6460 50.6620 50.6650 50.6800 50.6820 50.6840 50.6710 51.0540 50.9350 51.2100 51.5870 51.6180 51.0370 50.6900 50.6710 50.6600 50.6480 50.6420 50.6550 50.6220 50.6080 51.6390 51.6530 53.6520 54.8230 53.4550 56.7650 57.5970 58.5310 58.7020
61.5100 55.5000 52.9370 51.7700 50.6460 50.6230 50.6320 50.6520 50.6580 50.6560 50.6750 50.6750 50.6780 50.6900 50.6910 50.6840 50.6830 50.7270 50.9470 50.9620 51.3600 50.7480 50.6680 50.6830 50.6830 50.6570 50.6430 50.6510 50.6280 50.6070 50.6030 53.0860 55.7900 53.4250 53.1490 51.0430 53.0800 57.6970 58.3970 59.3230
69.1210 53.9170 51.4870 50.6460 50.6310 50.6280 50.6520 50.6670 50.6800 50.6740 50.6900 50.6920 50.6950 50.7040 50.7050 50.6980 50.7050 50.7100 50.7880 51.1890 50.6930 50.6830 50.6840 50.6680 50.6610 50.6470 50.6170 50.7450 50.6120 50.5850 50.6010 50.8440 52.2160 55.1670 52.3770 53.1420 57.3140 57.4860 59.0370 59.0060
52.3790 50.6810 50.6630 50.6400 50.6510 50.6600 50.6630 50.6760 50.6870 50.6800 50.6890 50.7110 50.7170 50.7060 50.7160 50.7150 50.7210 50.7040 50.7180 50.6990 50.6700 50.6840 50.6790 50.6710 50.6480 50.6400 50.6160 55.4240 53.9910 50.5980 56.0740 50.6140 55.1230 52.8460 50.8170 56.6440 56.8030 58.7450 58.9960 58.6890
50.6440 50.6360 50.6620 50.6630 50.6640 50.6790 50.6820 50.6910 50.6970 50.7000 50.7080 50.7280 50.8080 50.7340 50.7310 50.7280 50.7250 50.7060 50.7110 50.7080 50.6990 50.6820 50.6570 50.6560 50.6460 54.9960 54.9650 53.3720 51.8630 58.3010 50.9810 54.4180 54.9700 53.5300 57.3640 56.6520 56.6400 58.4360 59.0930 57.3540
50.6330 50.6580 50.6790 50.6760 50.6940 50.7000 50.7080 50.7090 50.7120 50.7190 50.7380 51.4950 51.9160 51.4000 50.7330 50.7220 50.7200 50.7110 50.7050 50.6980 50.6910 51.2920 50.6580 54.2470 56.3580 55.6560 55.4550 53.7160 55.6360 52.6240 56.5770 54.7180 53.1830 51.6170 57.3730 57.0620 58.0920 57.3740 57.9730 57.7050
50.6520 50.6700 50.6930 50.6970 50.7170 50.7220 50.7200 50.7250 50.7270 50.7570 51.7270 51.6110 51.4180 51.8050 50.7500 50.7360 50.7180 50.7160 50.7010 50.6960 51.9230 50.6660 55.8180 51.1930 56.7350 55.6660 53.5660 56.7040 53.0460 57.4730 53.5490 55.2830 51.3440 54.6780 58.0360 57.2290 54.9590 57.3730 57.9790 57.6310
50.6830 50.6940 50.7070 50.7110 50.7190 50.7360 50.7360 50.7340 52.1460 52.3600 51.0340 50.8410 51.5640 50.7240 50.7330 50.7330 50.7340 50.7190 50.7080 50.6930 50.6750 55.6770 52.0670 56.7030 57.5810 57.0950 58.3940 57.6860 57.3660 55.9860 57.4590 56.3880 56.2080 57.6030 57.2170 57.1600 57.5370 57.2130 57.7070 57.6220
50.7080 50.7160 50.7140 50.7300 50.7290 50.7400 51.0530 52.1160 52.2190 52.3580 52.3320 50.7490 50.7440 50.7270 50.7190 50.9880 50.7980 50.7150 50.6970 50.6840 54.2250 54.9070 56.8660 56.8440 57.6630 58.2030 58.3530 57.8740 58.2680 57.9040 58.2090 57.5200 58.6560 57.0930 57.4330 54.6490 56.3970 57.4840 57.7740 57.8710
50.7310 50.7410 50.7440 50.7440 51.3300 51.5220 50.7590 51.9710 52.4190 52.3360 50.9180 50.7420 50.7420 50.7390 50.7420 51.7380 51.2480 50.7230 50.6940 52.8610 52.6840 57.8850 58.5370 57.8710 57.9780 58.0030 57.8980 57.8450 57.3900 58.4630 58.3890 58.7870 58.3380 57.6710 58.0090 57.5090 57.2400 57.6760 58.3060 58.6050
50.7470 50.7520 50.7510 50.7650 51.4540 51.5950 50.8120 52.0330 51.9140 51.0210 50.7450 50.7430 50.7400 50.7540 50.8570 51.5800 52.2000 51.2970 50.7010 54.0800 55.4630 56.8350 57.4300 58.3460 57.4980 57.7110 58.9170 58.2710 58.8870 58.4390 59.0510 59.5480 57.0830 58.0200 57.2520 57.3180 57.9580 58.1710 58.3240 58.7300
50.7630 50.7700 50.7650 50.7700 51.4990 51.6800 51.0060 50.7750 50.7780 50.7600 50.7570 50.7530 50.7410 50.7490 50.8450 51.8050 51.4560 52.0190 50.7040 52.2640 55.4050 56.0960 57.8850 58.3490 58.8960 58.5140 58.5580 58.2580 59.3500 58.7950 59.4430 59.1710 58.8700 57.4620 57.3430 58.4350 59.3710 58.7930 58.7680 58.7720
50.7820 50.7740 50.7830 50.7760 50.7800 51.3660 51.2200 50.7530 50.7570 50.7650 50.7620 50.7550 50.8760 50.9970 51.5460 52.1460 50.8090 50.8860 50.6990 51.0170 55.4470 54.4290 57.5660 58.2060 58.2650 58.3530 58.2430 58.5510 59.4860 59.0330 58.6600 58.5150 58.5280 57.3830 58.0920 57.9700 58.2010 58.3950 57.5600 57.6320
50.7810 50.7730 50.7840 50.7960 50.7840 50.7700 50.7700 50.7680 50.7800 50.7740 50.8790 51.4560 50.7650 50.7570 52.2870 50.7550 51.2010 50.7220 50.7300 50.7980 55.6240 58.1420 57.3210 58.8260 58.7420 58.3980 57.0610 58.0960 59.8520 57.3410 60.4250 59.5130 58.8670 57.4420 58.3770 58.3340 58.5640 58.3020 57.9080 57.8410
50.7800 50.7910 50.8050 50.7990 50.7870 50.7690 50.7640 50.7670 50.7730 50.7770 51.7550 51.2820 50.8450 50.7630 50.8330 50.7510 50.7490 50.7700 50.8360 51.2580 52.5140 57.8900 58.4140 58.2360 59.1330 57.5510 57.8690 58.6020 59.8630 60.3650 57.3770 59.3140 57.3440 57.2480 57.2440 57.4620 58.7040 58.3730 57.5450 57.7410
50.8060 50.8150 50.8050 50.7780 50.7940 50.7860 50.7830 50.7740 51.0840 51.2640 52.1250 52.0790 51.4230 50.7750 50.7570 50.7860 50.8140 50.8530 50.8570 50.8340 54.0590 56.7980 55.8010 58.3290 58.8350 57.3600 59.0460 58.9110 59.2320 59.0680 59.9070 59.5900 58.0530 56.7390 57.6130 57.4360 57.2420 57.7010 58.4890 56.7260
50.8200 50.8260 50.8050 50.7940 50.7980 50.8010 50.7860 51.1140 51.8160 51.9420 50.8340 51.2130 50.9070 50.7820 50.8010 50.8570 50.8880 50.8760 50.8720 50.8720 56.0160 55.8540 57.9560 57.5040 57.7030 56.9240 57.3570 56.7970 59.8660 58.6080 57.9660 57.9500 57.0950 56.3870 56.0290 57.4880 57.4910 57.6180 58.3150 58.5090
50.8260 50.8350 50.8100 50.8000 50.8070 50.8060 51.5100 51.1590 52.1390 51.8130 51.2220 50.7720 50.7780 50.8490 50.8820 50.8930 50.8980 50.8900 50.8930 50.8950 51.8760 55.6050 57.3680 57.4670 56.9340 56.8740 57.1100 57.6960 58.4380 57.4010 57.8580 57.8420 55.8740 55.9570 56.7200 57.9660 57.4540 57.9470 58.3680 58.1720
54.6000 50.8190 50.8120 50.8120 50.8270 51.4230 50.8970 51.0900 51.7840 51.1170 50.7850 50.8310 50.8860 50.8930 50.8960 50.9010 50.9040 50.8890 50.8750 54.2220 55.6710 56.3370 56.8170 57.7590 57.5830 57.1090 57.6170 57.5640 54.5300 56.9210 56.7540 55.3430 55.2770 55.8020 56.7500 56.8640 56.2610 56.6540 57.3260 56.9330
51.7420 50.8250 50.8280 50.8240 50.8280 50.9280 51.2170 51.5860 51.4100 50.8260 50.8600 50.9190 50.9110 50.9140 50.8950 50.8930 50.8930 50.8900 50.8660 53.8430 55.9960 56.1950 56.6850 55.8750 56.1280 56.5790 54.6300 54.5770 55.0650 56.9250 56.6450 54.5910 54.8650 55.5880 56.0490 56.1820 56.1440 56.0860 56.7630 56.6050
50.8370 56.9520 50.8390 50.8370 50.8270 50.8310 51.5280 50.8170 50.8290 50.8950 50.9370 50.9310 50.9250 50.9250 50.9060 50.9040 50.8910 50.9150 52.7280 55.8550 56.1080 54.2570 56.6110 56.6130 55.7360 57.0280 57.1110 56.2890 53.7930 51.2520 54.2010 52.4250 54.0030 54.3710 55.1210 55.9920 55.5800 54.6980 56.6580 56.1610
50.8370 50.8440 51.0160 50.8510 50.8370 50.8280 50.8320 50.8460 50.9260 50.9460 50.9460 50.9480 50.9270 50.9220 50.9240 50.9210 50.9310 50.9380 55.5530 56.0990 54.7340 56.4450 57.5820 57.5130 53.0500 56.8760 56.7240 57.6680 56.6790 55.9140 50.8880 50.8650 51.4310 51.8890 53.0460 54.9580 53.9060 54.3600 55.2360 55.8350
50.8520 50.8490 50.8410 51.8540 50.8440 50.8440 50.8700 50.9410 50.9610 50.9450 50.9400 50.9330 50.9170 50.9300 50.9420 50.9540 50.9510 51.0760 55.6120 54.0570 55.9880 57.2680 56.2960 57.3120 57.5270 57.5810 56.7210 57.1490 56.9750 56.9350 55.9350 50.8830 50.8810 52.7710 53.1760 50.9720 53.9050 54.8590 54.3340 54.3140
50.8530 50.8480 50.8530 51.8130 50.8520 50.8930 50.9430 50.9490 50.9510 50.9380 50.9270 50.9250 50.9270 50.9540 50.9600 50.9660 50.9550 56.5170 50.9410 52.6300 56.5330 54.9270 56.6300 57.6060 57.6260 57.7820 57.7540 57.4230 56.0040 57.1390 56.5400 55.3660 50.8850 50.8670 50.9540 52.9200 50.8190 51.6780 52.6470 50.8120
50.8610 50.8540 50.8530 50.8730 53.4860 55.0700 52.0450 50.9490 50.9540 50.9430 50.9350 50.9440 50.9670 50.9700 50.9740 50.9670 50.9700 52.8420 56.0830 56.1310 56.3560 57.5430 57.9010 57.7820 57.8690 58.0910 58.0350 57.4070 56.8070 57.4370 56.3000 56.0860 50.9080 50.8880 50.8770 50.8630 50.8420 50.8440 50.8380 50.8130
50.8690 50.8740 50.8710 50.8780 50.9510 53.6410 51.6020 50.9600 50.9620 50.9590 50.9630 50.9810 50.9930 50.9880 50.9870 50.9850 50.9690 55.0610 54.2310 57.4690 57.8880 56.7920 57.7240 57.8210 57.3110 57.7230 58.1310 57.4700 57.2140 58.1500 55.6560 55.0530 55.8680 50.9170 50.9060 50.8900 50.8630 50.8520 50.8410 50.8230
50.8840 50.8840 50.8910 50.9560 50.9940 50.9890 50.9850 50.9750 50.9780 50.9790 50.9920 50.9940 50.9950 50.9890 50.9930 50.9850 50.9850 56.3030 53.3680 56.0680 56.6120 57.8630 57.8730 57.8290 56.8670 57.1630 57.2840 57.3320 57.9850 57.5810 56.6810 56.0910 56.1430 50.9340 50.9120 50.8890 50.8800 50.8610 50.8570 50.8430
50.8980 50.9020 50.9460 50.9970 50.9880 50.9860 51.8150 52.5260 51.0040 50.9960 51.0080 51.0030 51.0110 51.0030 51.0030 51.0080 51.0100 54.1420 55.6440 56.0060 56.4270 57.8170 56.7360 57.9940 57.4170 57.4720 57.7900 57.5910 57.7790 55.9810 56.4260 54.9440 50.9410 50.9390 50.9180 50.8990 50.8850 50.8760 50.8700 50.8550
50.9110 50.9290 50.9750 51.0110 51.0150 51.0100 51.0170 51.0060 51.0150 50.9890 50.9520 51.0120 51.0210 51.0220 51.0770 51.0550 51.0310 55.0950 56.1250 55.9020 56.4830 57.6890 57.6690 57.3940 57.5240 57.3580 57.4640 57.2720 57.2720 56.5770 56.3420 55.0250 51.7010 50.9370 50.9250 50.9090 50.8850 50.8770 50.8760 50.8660
50.9250 50.9360 50.9500 50.9930 51.0220 51.0220 51.0250 51.0280 51.0260 51.0030 51.0050 51.0040 51.0380 51.1540 51.1290 51.0670 51.0440 54.2700 51.4240 58.2990 55.8620 56.7700 56.6710 57.3660 56.7090 57.7450 57.1050 57.3370 57.1830 56.8820 56.2470 52.7560 50.9530 50.9390 50.9280 50.9150 50.9050 50.8890 50.8890 50.8940
50.9300 50.9370 50.9630 50.9820 51.0040 51.0220 51.0360 51.0250 51.0220 51.0260 51.0280 51.0220 51.0420 51.1820 51.1150 51.0510 51.0540 51.0450 52.2900 61.3990 56.1830 56.3070 56.2700 57.0280 57.2770 57.2140 56.6530 56.8720 56.2600 57.1270 54.8700 51.3680 50.9750 50.9700 50.9540 50.9300 50.9090 50.8990 50.8910 50.8920
50.9310 50.9500 51.1090 50.9870 51.0040 51.0130 51.0110 51.0160 51.0220 51.0230 51.0350 51.0180 51.0280 51.0480 51.0540 51.0460 51.0500 51.0410 51.0330 54.9960 51.0550 55.9370 56.2930 56.3610 56.7170 56.8120 56.5140 56.5010 56.4920 54.1610 55.2850 51.0240 50.9960 50.9850 50.9480 50.9390 50.9210 50.9080 50.9010 50.8950
50.9300 50.9370 50.9500 50.9780 50.9910 51.0060 51.0170 51.0240 51.0230 51.0360 51.0400 51.0410 51.0320 51.0360 51.0420 51.0540 51.0470 51.0260 51.0350 51.0420 51.0470 53.5450 56.6240 52.8250 53.0770 56.9040 55.5970 56.4860 51.5410 53.8430 51.0730 51.0520 50.9980 51.0050 50.9830 50.9770 50.9730 50.9390 50.9200 50.9160
50.9190 50.9230 50.9420 50.9620 50.9850 51.0040 51.0200 51.0330 51.0350 51.0260 51.0300 51.0460 51.0440 51.0450 51.0500 51.0450 51.0490 51.0470 51.0500 51.0500 51.0480 51.0380 51.0470 51.0330 53.2530 51.0670 54.5870 51.3180 53.7000 53.2060 51.0480 51.0590 51.0380 51.0310 51.0380 51.0070 50.9870 50.9710 50.9520 50.9360
50.9060 50.9210 50.9290 50.9360 50.9640 50.9980 51.0150 51.0190 51.0260 51.0270 51.0330 51.0380 51.0450 51.0480 51.0490 51.0420 51.0480 51.0500 51.0480 51.0520 51.0560 51.0580 51.0600 51.0620 51.0640 51.0590 51.0420 51.0670 51.0740 51.0670 51.0420 51.0740 51.0630 51.0240 51.0210 51.0220 51.0030 50.9840 50.9710 50.9610
50.8890 50.8950 50.9190 50.9220 51.3660 54.5370 51.0100 51.0040 51.0160 51.0200 51.0290 51.0360 51.0380 51.0300 51.0370 51.0400 51.0430 51.0460 51.0490 51.0560 51.0560 51.0620 51.0730 51.0850 51.0700 51.0560 51.0590 51.0660 51.0750 51.0660 51.0540 51.0650 51.0410 51.0310 51.0200 51.0250 51.0230 50.9910 50.9770 50.9680
50.8960 50.8900 50.8870 50.9030 51.1680 52.5660 51.0120 51.0090 51.0200 51.0130 51.0270 51.0230 51.0260 51.0280 51.0380 51.0390 51.0410 51.0410 51.0450 51.0540 51.0540 51.0620 51.0760 51.0720 51.0630 51.0610 51.0640 51.0640 51.0720 51.0710 51.0710 51.0710 51.0600 51.0570 51.0440 51.0290 51.0270 51.0010 51.0020 50.9890
50.8800 50.8820 50.8900 50.8930 50.9640 50.9930 51.0090 51.0060 51.0180 51.0190 51.0220 51.0150 51.0130 51.0250 51.0330 51.0310 51.0390 51.0380 51.0390 51.0480 51.0620 51.0580 51.0670 51.0670 51.0620 51.0620 51.0690 51.0670 51.0730 51.0740 51.0810 51.0800 51.0840 51.0800 51.0640 51.0530 51.0390 51.0090 51.0130 50.9920
50.8760 50.8800 50.8740 50.8750 50.8820 50.8950 50.9140 50.9590 50.9880 50.9950 51.0130 51.0190 51.0180 51.0180 51.0230 51.0270 51.0310 51.0330 51.0280 51.0480 51.0500 51.0480 51.0540 51.0590 51.0640 51.0610 51.0680 51.0790 51.0780 51.0770 51.0790 51.0940 51.0880 51.0880 51.0690 51.0530 51.0460 51.0330 51.0150 50.9930
